//X Y Z Intensity R G B
-3.03440762 -3.17378116 -1.82375002 0.494888 33 38 24
-3.03440142 -3.17216420 -1.82371628 0.489822 31 37 24
-3.03436589 -3.16852999 -1.82511449 0.495071 30 37 23
-3.03435993 -3.17140388 -1.82206821 0.493240 31 37 23
-3.02882361 -3.17496252 -1.82298887 0.486251 33 38 24
-3.02878666 -3.17484236 -1.82195079 0.493301 32 37 23
-3.02881169 -3.17569900 -1.82027304 0.492080 33 38 24
-3.02868414 -3.17004895 -1.82304251 0.500809 31 38 24
-3.02864718 -3.16815662 -1.82319152 0.492080 34 38 25
-3.02864122 -3.16895342 -1.82157588 0.491836 31 37 23
-3.02349353 -3.18318748 -1.82510602 0.488296 33 38 24
-3.02342701 -3.18108106 -1.82549882 0.493240 32 37 23
-3.02354240 -3.18590975 -1.82105112 0.490005 33 38 24
-3.02338433 -3.17974114 -1.82424593 0.491409 32 38 23
-3.02317214 -3.17483139 -1.82207191 0.489883 33 39 23
-3.02307439 -3.17101431 -1.82356215 0.488479 32 38 24
-3.02300739 -3.16887808 -1.82389498 0.493667 32 38 24
-3.02300143 -3.16903305 -1.82267427 0.490249 31 36 22
-3.02293444 -3.16695786 -1.82297623 0.485702 31 36 22
-3.02283764 -3.16369033 -1.82407033 0.488235 31 36 22
-3.02262449 -3.15737629 -1.82271802 0.490951 31 35 22
-3.02249622 -3.15310192 -1.82442069 0.485824 32 37 23
-3.02255154 -3.15524197 -1.82189083 0.487533 31 36 23
-3.01817012 -3.18799758 -1.82517242 0.491958 31 38 23
-3.01813412 -3.18763304 -1.82431805 0.495315 32 38 24
-3.01809764 -3.18668795 -1.82391965 0.487289 31 37 23
-3.01809168 -3.18684292 -1.82269895 0.494675 32 38 24
-3.01790357 -3.18207884 -1.82495117 0.490707 30 36 23
-3.01783681 -3.17991138 -1.82534385 0.490371 32 37 24
-3.01753259 -3.17295575 -1.82457101 0.493606 30 36 22
-3.01746559 -3.17124701 -1.82459962 0.493179 32 38 23
-3.01752067 -3.17335677 -1.82206964 0.492233 32 39 24
-3.01733184 -3.16874623 -1.82410812 0.500198 31 38 22
-3.01732612 -3.16844177 -1.82322264 0.493118 32 37 23
-3.01713729 -3.16306710 -1.82574785 0.487075 30 36 24
-3.01692414 -3.15910578 -1.82278144 0.486526 31 37 23
-3.01670384 -3.15327311 -1.82555008 0.493027 30 36 22
-3.01681900 -3.15697169 -1.82180238 0.487899 31 37 23
-3.01666188 -3.15245175 -1.82387090 0.491775 30 36 23
-3.01659465 -3.15098739 -1.82368577 0.496780 31 36 23
-3.01646638 -3.14723253 -1.82502341 0.491195 30 36 23
-3.01267195 -3.18847752 -1.82392073 0.490066 33 38 24
-3.01266599 -3.18857145 -1.82273078 0.486526 31 37 24
-3.01250744 -3.18542624 -1.82382560 0.484420 32 37 24
-3.01268387 -3.18976641 -1.81968164 0.491012 28 34 20
-3.01240492 -3.18326163 -1.82312059 0.490890 30 35 22
-3.01236796 -3.18332481 -1.82199180 0.490951 31 37 24
-3.01169872 -3.16903687 -1.82630491 0.494369 32 39 24
-3.01166272 -3.16790867 -1.82596815 0.488998 32 39 24
-3.01162553 -3.16739106 -1.82517350 0.489486 31 38 24
-3.01161957 -3.16751504 -1.82395375 0.499069 31 38 24
-3.01161361 -3.16797543 -1.82255054 0.491256 31 38 24
-3.01145601 -3.16486120 -1.82358325 0.486953 31 37 24
-3.01099873 -3.15549374 -1.82424223 0.492843 31 38 24
-3.01090050 -3.15317345 -1.82463491 0.488601 31 37 24
-3.01080227 -3.15152574 -1.82460284 0.491592 31 37 24
-3.01070547 -3.14942074 -1.82490480 0.486831 30 36 23
-3.01069927 -3.14933038 -1.82383668 0.491470 31 37 23
-3.01066232 -3.14878273 -1.82307291 0.497360 30 36 23
-3.01014304 -3.13825369 -1.82430935 0.489303 31 36 23
-3.01019788 -3.13966084 -1.82223642 0.494247 31 35 22
-3.00751948 -3.19515467 -1.82048023 0.486648 33 40 25
-3.00696635 -3.18480062 -1.82666230 0.489822 30 38 22
-3.00726461 -3.19082022 -1.82136047 0.492019 32 38 22
-3.00698543 -3.18550682 -1.82397723 0.489761 31 37 23
-3.00704026 -3.18709731 -1.82178259 0.488052 31 37 23
-3.00679111 -3.18242550 -1.82394218 0.490310 30 36 22
-3.00627303 -3.17324018 -1.82469285 0.489059 32 38 24
-3.00617623 -3.17159247 -1.82472157 0.496780 31 37 23
-3.00613928 -3.17104483 -1.82398891 0.486343 33 39 25
-3.00619411 -3.17278743 -1.82167149 0.487899 33 39 25
-3.00600553 -3.16887951 -1.82325304 0.488784 32 39 25
-3.00593877 -3.16830087 -1.82255054 0.492080 30 38 23
-3.00554276 -3.16162109 -1.82144356 0.495895 31 38 23
-3.00523162 -3.15597177 -1.82409096 0.495499 33 39 22
-3.00516438 -3.15453839 -1.82390487 0.495895 31 37 20
-3.00497532 -3.15124130 -1.82499957 0.496017 31 37 20
-3.00496936 -3.15167046 -1.82359624 0.494766 32 38 21
-3.00490236 -3.15066433 -1.82316792 0.493362 31 38 22
-3.00429082 -3.13952494 -1.82477081 0.496475 32 36 23
-3.00431490 -3.14068794 -1.82287955 0.499741 33 37 23
-3.00409532 -3.13668847 -1.82433915 0.490646 29 35 22
-3.00399709 -3.13479662 -1.82445860 0.491897 29 34 21
-3.00405216 -3.13611150 -1.82247746 0.489883 29 34 21
-3.00377035 -3.13076878 -1.82478917 0.492080 29 34 21
-3.00349522 -3.12732649 -1.82127595 0.490585 29 33 20
-3.00243473 -3.19962049 -1.82521498 0.490585 33 40 25
-3.00251961 -3.20127201 -1.82292819 0.489425 34 41 26
-3.00239205 -3.19950199 -1.82310891 0.492599 34 42 26
-3.00188208 -3.19193411 -1.82410717 0.490310 33 39 25
-3.00177860 -3.19038033 -1.82297516 0.487014 30 37 22
-3.00171161 -3.18967962 -1.82236433 0.491775 30 37 22
-3.00149322 -3.18613815 -1.82373273 0.492599 30 37 22
-3.00136447 -3.18439841 -1.82382250 0.493881 30 37 22
-3.00132871 -3.18363667 -1.82324147 0.489639 32 38 24
-3.00087881 -3.17732120 -1.82323349 0.491012 33 37 23
-3.00050020 -3.17118526 -1.82520938 0.494186 33 38 24
-3.00049424 -3.17152333 -1.82386696 0.486251 32 38 24
-3.00048828 -3.17176962 -1.82258534 0.494430 35 39 25
